# .PCD v0.7 - Point Cloud Data file format
VERSION 0.7
FIELDS x y z rgb
SIZE 4 4 4 4
TYPE F F F F
COUNT 1 1 1 1
WIDTH 1554
HEIGHT 1
VIEWPOINT 0 0 0 1 0 0 0
POINTS 1554
DATA ascii
0.82643002 0.090328999 -1.6059999 0
0.83987999 0.090249002 -1.6046 0
0.85527998 0.090962 -1.6173 0
0.85404998 0.090538003 -1.6097 0
0.88246 0.090768002 -1.6138 0
0.88314998 0.090202004 -1.6038001 0
0.89016002 0.090479001 -1.6087 0
0.91132998 0.091302 -1.6233 0
-0.74457002 0.062766001 -1.0967 0
0.48899001 0.065652996 -1.1471 0
0.70868999 0.086906999 -1.5185 0
0.76574999 0.090821996 -1.5868 0
0.80944997 0.092315003 -1.6129 0
0.85799003 0.092797004 -1.6214 0
0.86166 0.092798002 -1.6214 0
0.86043 0.092367001 -1.6138 0
0.86246002 0.092223004 -1.6113 0
0.86720997 0.092317998 -1.613 0
0.91254997 0.092372 -1.6138999 0
0.91965002 0.092648 -1.6188 0
-0.75915003 0.065099999 -1.1181 0
-0.74848998 0.064396001 -1.1059999 0
0.46197 0.064537004 -1.1084 0
0.62263 0.080421001 -1.3812 0
0.73695999 0.091550998 -1.5724 0
0.74349999 0.091867998 -1.5778 0
0.76577002 0.092724003 -1.5925 0
0.77701002 0.093484998 -1.6056 0
0.78671002 0.093079001 -1.5986 0
0.79132998 0.093188003 -1.6005 0
0.84108001 0.093852997 -1.6119 0
0.89984 0.094815001 -1.6285 0
0.90634 0.095051996 -1.6325001 0
0.90837997 0.094902001 -1.6299 0
0.91413999 0.094745003 -1.6273 0
-0.83405 0.072993003 -1.2326 0
-0.74067003 0.065021999 -1.098 0
0.46097001 0.065535001 -1.1066 0
0.72543001 0.092278004 -1.5582 0
0.76832998 0.094559997 -1.5967 0
0.78315997 0.095000997 -1.6042 0
0.79444999 0.095081002 -1.6055 0
0.82440001 0.095238 -1.6082 0
0.85948002 0.095808998 -1.6178 0
0.88200003 0.096846998 -1.6354001 0
0.91279 0.095914997 -1.6196001 0
-0.79601997 0.070836 -1.1762 0
0.4553 0.066283002 -1.1006 0
0.46797001 0.067371003 -1.1187 0
0.69283998 0.090456001 -1.502 0
0.74098998 0.095100999 -1.5791 0
0.75461 0.095806003 -1.5908 0
0.76019001 0.096027002 -1.5944999 0
0.77035999 0.096014 -1.5943 0
0.77341002 0.095974997 -1.5936 0
0.78007001 0.096294999 -1.599 0
0.79653001 0.096891001 -1.6089 0
0.80221999 0.097104996 -1.6124001 0
0.80479002 0.097011 -1.6108 0
0.81102002 0.097274996 -1.6152 0
0.82183999 0.096942 -1.6097 0
0.82758999 0.097150996 -1.6131999 0
0.87816 0.098130003 -1.6294 0
0.90998 0.097286999 -1.6154 0
0.60284001 0.083082996 -1.3566999 0
0.73346001 0.096612997 -1.5776 0
0.75914001 0.098246001 -1.6043 0
0.77087998 0.098036997 -1.6008 0
0.77701002 0.098311 -1.6052999 0
0.78625 0.098544002 -1.6091 0
0.79088002 0.098659001 -1.6109999 0
0.80533999 0.099050999 -1.6174001 0
0.92537999 0.098943003 -1.6156 0
-0.73286003 0.067635 -1.0862 0
0.46008 0.069288 -1.1127 0
0.72048002 0.09719 -1.5608 0
0.73545998 0.098447002 -1.581 0
0.74198002 0.098785996 -1.5864 0
0.74702001 0.098963998 -1.5893 0
0.75459999 0.099408999 -1.5964 0
0.75967002 0.099583998 -1.5992 0
0.78573 0.1005 -1.614 0
0.85281003 0.10114 -1.6242 0
0.85786003 0.10057 -1.615 0
0.87611002 0.10161 -1.6318001 0
0.92135 0.10092 -1.6207 0
-0.76186001 0.071497999 -1.1292 0
-0.74677998 0.070311002 -1.1104 0
0.472 0.071767002 -1.1334 0
0.69853997 0.096410997 -1.5226001 0
0.73695999 0.10026 -1.5835 0
0.74549001 0.10083 -1.5924 0
0.74852997 0.10079 -1.5918 0
0.75409001 0.10102 -1.5954 0
0.75765002 0.10104 -1.5957 0
0.77599001 0.10153 -1.6034 0
0.78060001 0.10165 -1.6052999 0
0.84654999 0.10294 -1.6257 0
0.85128999 0.10305 -1.6274 0
0.85549998 0.1031 -1.6283 0
0.86080003 0.10326 -1.6308 0
0.86339998 0.10316 -1.6292 0
0.86737001 0.10247 -1.6183 0
0.87269002 0.10263 -1.6208 0
0.89477998 0.10367 -1.6373 0
0.90559 0.10291 -1.6253 0
0.91413999 0.10301 -1.6267999 0
-0.74567002 0.071387999 -1.1087 0
0.45816001 0.071929 -1.1171 0
0.60105997 0.087774001 -1.3631999 0
0.72744 0.10164 -1.5784 0
0.73842001 0.10249 -1.5917 0
0.78625 0.10359 -1.6088001 0
0.79088002 0.10371 -1.6107 0
0.79084998 0.10334 -1.6049 0
0.86088997 0.10538 -1.6366 0
0.86728001 0.10565 -1.6408 0
0.86989999 0.10554 -1.6391 0
0.86751002 0.10457 -1.624 0
0.87338001 0.10479 -1.6274 0
0.88034999 0.10511 -1.6323 0
0.46063 0.073274001 -1.1214 0
0.71551001 0.10215 -1.5633 0
0.73637998 0.10415 -1.5939 0
0.75146002 0.10509 -1.6083 0
0.77337998 0.10562 -1.6163 0
0.79396999 0.10596 -1.6215 0
0.79861999 0.10608 -1.6234 0
0.81888002 0.10634 -1.6274 0
0.86708999 0.10644 -1.6289999 0
0.89463001 0.10659 -1.6312 0
0.89668 0.10642 -1.6287 0
0.89984 0.10636 -1.6278 0
0.46853 0.075172 -1.1352 0
0.70015001 0.10174 -1.5364 0
0.73837 0.10578 -1.5973001 0
0.76928002 0.10696 -1.6152 0
0.76729 0.10635 -1.6059 0
0.8064 0.10757 -1.6244 0
0.82306999 0.10822 -1.6342 0
0.85623997 0.10903 -1.6464 0
0.85343999 0.10797 -1.6305 0
0.85766 0.10803 -1.6314 0
0.87305999 0.10847 -1.6381 0
0.89463001 0.10801 -1.6311001 0
0.90000999 0.10817 -1.6335 0
-0.91384 0.091935001 -1.3684 0
-0.81952 0.082695 -1.2308 0
0.46112999 0.075928003 -1.1301 0
0.60516 0.092724003 -1.3801 0
0.73079997 0.10721 -1.5958 0
0.77125001 0.10913 -1.6243 0
0.78568 0.10919 -1.6251 0
0.78878999 0.10914 -1.6244 0
0.81524003 0.10971 -1.633 0
0.81836998 0.10966 -1.6322 0
0.82831001 0.10996 -1.6367 0
0.86997998 0.1105 -1.6447001 0
0.89589 0.11009 -1.6386 0
-0.74273998 0.076390997 -1.1187 0
0.46555001 0.077698 -1.1378 0
0.71938998 0.10799 -1.5815001 0
0.73326999 0.10925 -1.6 0
0.74383998 0.10971 -1.6066 0
0.75902998 0.11029 -1.6151 0
0.76411998 0.11048 -1.618 0
0.81211001 0.11155 -1.6336 0
0.81733 0.11173 -1.6363 0
0.84720999 0.11183 -1.6377 0
0.89589 0.11188 -1.6384 0
-0.74495 0.077799998 -1.122 0
-0.73829001 0.077358 -1.1156 0
0.46555001 0.078895003 -1.1378 0
0.70462 0.10785 -1.5553 0
0.73031002 0.11058 -1.5947 0
0.73878998 0.1112 -1.6036 0
0.74831003 0.11194 -1.6143 0
0.77283001 0.11239 -1.6209 0
0.83724999 0.11407 -1.645 0
0.86673999 0.11368 -1.6394 0
-0.81816 0.086728998 -1.2327 0
-0.75310999 0.080071002 -1.138 0
0.45767 0.079632998 -1.1318001 0
0.59103 0.096029997 -1.3648 0
0.72079998 0.11184 -1.5896 0
0.73022997 0.1126 -1.6003 0
0.74019003 0.11341 -1.6119 0
0.74374998 0.11343 -1.6122 0
0.81154001 0.11569 -1.6442 0
0.81624001 0.11581 -1.646 0
0.83146 0.1159 -1.6473 0
0.84246999 0.11509 -1.6358 0
0.85517001 0.11569 -1.6443 0
0.86422998 0.11629 -1.6526999 0
0.86686999 0.11617 -1.6511 0
0.86734998 0.11581 -1.646 0
0.88011998 0.11599 -1.6485 0
0.88538998 0.11575 -1.6451 0
-0.88379002 0.095345996 -1.3364 0
0.46498001 0.081676997 -1.1447999 0
0.70946002 0.11239 -1.5753 0
0.73110998 0.11471 -1.6077 0
0.77939999 0.11643 -1.6318001 0
0.80739999 0.11681 -1.6373 0
0.83671999 0.11771 -1.6497999 0
0.85627002 0.11785 -1.6517 0
0.87484998 0.11785 -1.6518 0
-0.88379002 0.096617997 -1.3363 0
0.46645001 0.082956001 -1.1473 0
0.68988001 0.11137 -1.5404 0
0.73307002 0.11649 -1.6111 0
0.75427002 0.11745 -1.6243 0
0.75487 0.11709 -1.6194 0
0.78455001 0.11818 -1.6345 0
0.80844003 0.1185 -1.6389 0
0.83617002 0.11964 -1.6547 0
0.83986998 0.11965 -1.6548001 0
-0.75300997 0.083639003 -1.1414 0
0.59258997 0.10093 -1.3774 0
0.72500002 0.11788 -1.6087 0
0.7349 0.11873 -1.6203001 0
0.74289 0.11932 -1.6284 0
0.77780998 0.11979 -1.6348 0
0.78345001 0.12006 -1.6385 0
0.80164999 0.12012 -1.6393 0
0.81097001 0.12082 -1.6489 0
0.81876999 0.12133 -1.6558 0
0.83724999 0.12051 -1.6445 0
0.85623997 0.12058 -1.6456 0
-0.76055002 0.085905001 -1.1567 0
0.70735002 0.11756 -1.5829999 0
0.72402 0.11933 -1.6068 0
0.73784 0.12071 -1.6253999 0
0.74584001 0.12131 -1.6335 0
0.78386003 0.12217 -1.6451 0
0.80422002 0.12206 -1.6435 0
0.86158001 0.12283 -1.6539 0
0.86637002 0.12296 -1.6556 0
-0.76874 0.088018999 -1.1691 0
0.69081998 0.11693 -1.5532 0
0.72451001 0.12103 -1.6075 0
0.73049998 0.12138 -1.6122 0
0.74006999 0.12175 -1.6171 0
0.74919999 0.12205 -1.6210999 0
0.77267998 0.12285 -1.6318001 0
0.78083003 0.12345 -1.6398 0
0.78244001 0.12321 -1.6365 0
0.81467998 0.12369 -1.6429 0
0.84088999 0.12512 -1.6619999 0
0.87431002 0.12426 -1.6505001 0
-0.74461001 0.086721003 -1.1359 0
0.58148998 0.10438 -1.3673 0
0.7155 0.1224 -1.6033 0
0.72632003 0.12342 -1.6167001 0
0.73183 0.12371 -1.6205 0
0.7349 0.12367 -1.6199 0
0.73995 0.12389 -1.6228 0
0.74549001 0.12418 -1.6265 0
0.76945001 0.12506001 -1.6382 0
0.77257001 0.12501 -1.6375 0
0.78637999 0.1259 -1.6490999 0
0.79053998 0.12598 -1.6501 0
0.79530001 0.12568 -1.6461999 0
0.79690999 0.12543 -1.6429 0
0.80260998 0.1257 -1.6465 0
0.80883998 0.12604 -1.6509 0
0.81353998 0.12617999 -1.6528 0
0.81567001 0.12599 -1.6503 0
0.82401001 0.12659 -1.6581 0
0.84245998 0.12706999 -1.6644 0
0.83986998 0.12628999 -1.6543 0
0.84830999 0.12688001 -1.6619999 0
0.69844002 0.12213 -1.5784 0
0.72665 0.1256 -1.6232001 0
0.75139999 0.12665001 -1.6368001 0
0.75648999 0.12687001 -1.6397001 0
0.75761998 0.12656 -1.6356 0
0.76271999 0.12678 -1.6384 0
0.76633 0.12679 -1.6387 0
0.78839999 0.12785999 -1.6524 0
0.79661 0.12847 -1.6603 0
0.80129999 0.12862 -1.6622 0
0.82341999 0.12868001 -1.663 0
-0.74611998 0.089502998 -1.1418999 0
0.67185998 0.11994 -1.5303 0
0.73052001 0.12777001 -1.6301 0
0.75712001 0.12812001 -1.6346 0
0.76271999 0.12841 -1.6382999 0
0.79053998 0.12932 -1.6499 0
0.80773002 0.12971 -1.6548001 0
0.82187003 0.13014001 -1.6603 0
0.83666003 0.13017 -1.6607 0
-1.0003 0.12169 -1.5335 0
-0.86680001 0.10573 -1.3322999 0
0.58583999 0.10991 -1.385 0
0.71904999 0.12867001 -1.6215 0
0.72839999 0.12953 -1.6323 0
0.73439997 0.12989999 -1.6368999 0
0.75006002 0.12921 -1.6282001 0
0.76208001 0.13039 -1.6431 0
0.77381003 0.13105001 -1.6514 0
0.80865997 0.13191 -1.6622 0
0.81489998 0.13225999 -1.6667 0
0.82244998 0.13135 -1.6552 0
0.83816999 0.13244 -1.669 0
0.84779 0.13179 -1.6607 0
-1.038 0.12824 -1.597 0
-0.74478 0.092133 -1.1473 0
0.45728999 0.092754997 -1.1551 0
0.70108998 0.12806 -1.5948 0
0.73061001 0.13188 -1.6423 0
0.73517001 0.13204999 -1.6444 0
0.73633999 0.13172001 -1.6403 0
0.74338001 0.13076 -1.6284 0
0.75238001 0.13155 -1.6382 0
0.76703 0.13263001 -1.6517 0
0.78373998 0.13251001 -1.6501 0
-0.74694002 0.093517996 -1.1506 0
0.46399999 0.094870001 -1.1672 0
0.71981001 0.13237999 -1.6287 0
0.74361002 0.13539 -1.6658 0
0.74483001 0.13506 -1.6617 0
0.74457997 0.13451 -1.655 0
0.74286002 0.13376001 -1.6457 0
0.74878001 0.13312 -1.6378 0
0.75632 0.1337 -1.645 0
0.78776997 0.13467 -1.6569 0
0.78941 0.1344 -1.6536 0
0.80396003 0.13493 -1.6601 0
0.80865997 0.13507999 -1.6619999 0
-0.90307999 0.11463 -1.3929 0
-0.77481002 0.098576002 -1.1978 0
0.4585 0.095923997 -1.1655999 0
0.47031 0.097358003 -1.183 0
0.75871003 0.13986 -1.6993999 0
0.74602002 0.13744 -1.67 0
0.74483001 0.13674 -1.6615 0
0.75085002 0.13609 -1.6536 0
0.75203001 0.13575 -1.6496 0
0.7773 0.13637 -1.6569999 0
0.83332998 0.13766 -1.6727 0
-0.92027998 0.11867 -1.4244 0
-0.74663001 0.096450001 -1.1576999 0
0.46562999 0.098194003 -1.1786 0
0.75726998 0.14135 -1.6967 0
0.75566 0.14057 -1.6873 0
0.75256002 0.13958 -1.6754 0
0.75089002 0.1388 -1.666 0
-0.92027998 0.12009 -1.4243 0
0.46373001 0.099076003 -1.175 0
0.76850998 0.14368001 -1.704 0
0.75621998 0.14127 -1.6755 0
0.80976999 0.1418 -1.6818 0
0.83228999 0.14087 -1.6707 0
-0.74769998 0.098884001 -1.1592 0
0.47045001 0.10166 -1.1917 0
0.76222998 0.14438 -1.6925 0
0.75572997 0.14284 -1.6745 0
0.75307 0.1419 -1.6634001 0
0.7572 0.14199001 -1.6645 0
-0.76414001 0.10255 -1.1888 0
0.45916 0.10136 -1.175 0
0.76125997 0.14583001 -1.6906 0
0.76300001 0.14555 -1.6874 0
0.76036 0.1446 -1.6763 0
0.76011997 0.14402001 -1.6696 0
0.76427001 0.14411999 -1.6707 0
0.76350999 0.14346001 -1.6632 0
0.80101001 0.14429 -1.6727 0
0.82950997 0.14473 -1.6779 0
-0.77271003 0.10489 -1.2022001 0
0.66292 0.13503 -1.5476 0
0.76959997 0.14769 -1.6927 0
0.76598001 0.14657 -1.6799001 0
0.76792997 0.14578 -1.6708 0
0.77081001 0.14514001 -1.6635 0
0.77644998 0.14545999 -1.6672 0
0.78011 0.14548001 -1.6674 0
0.80404001 0.14638001 -1.6777 0
-0.74840999 0.10312 -1.1679 0
-0.74234998 0.10262 -1.1623 0
0.76608998 0.15002 -1.6991 0
0.76542997 0.14935 -1.6914999 0
0.76668 0.14899001 -1.6874 0
0.76549 0.14824 -1.6789 0
0.76719999 0.14794999 -1.6756999 0
0.77234 0.14820001 -1.6785001 0
0.77405 0.14792 -1.6752 0
0.77822 0.14801 -1.6763 0
0.79882997 0.14788 -1.6749001 0
0.80808002 0.14872999 -1.6845 0
-0.75139999 0.10512 -1.1765 0
0.76784998 0.15151 -1.6957 0
0.77155 0.15154 -1.6959 0
0.77183002 0.15101001 -1.6900001 0
0.77112001 0.15033001 -1.6824 0
0.77430999 0.15028 -1.6818 0
0.79395002 0.15000001 -1.6787 0
0.79764998 0.15001 -1.6788 0
0.80738002 0.15095 -1.6892999 0
0.81397998 0.1503 -1.682 0
-0.75832999 0.10737 -1.1873 0
0.77748001 0.15315001 -1.6936001 0
0.77774 0.15262 -1.6877 0
0.77995998 0.1524 -1.6853 0
0.78975999 0.15169001 -1.6775 0
0.79444999 0.15186 -1.6794 0
0.80166 0.15242 -1.6856 0
-0.75011998 0.10772 -1.1782 0
0.45513001 0.10789 -1.1799999 0
0.45131001 0.10683 -1.1684999 0
0.45122999 0.10642 -1.164 0
0.78487998 0.15486 -1.6938 0
0.78513002 0.15433 -1.688 0
0.79773998 0.15462001 -1.6911 0
0.80194998 0.15470999 -1.6921999 0
-0.74564999 0.10852 -1.1751 0
-0.74119997 0.10823 -1.1720001 0
0.46213999 0.11018 -1.1931 0
0.78882003 0.15705 -1.7006 0
0.7881 0.15635 -1.693 0
0.79623997 0.15592 -1.6884 0
-0.74830002 0.11004 -1.1792001 0
0.45609999 0.11068 -1.186 0
0.70639002 0.15419 -1.6523 0
-0.85376 0.12754001 -1.3518 0
-0.74624002 0.11413 -1.1835999 0
-0.082400002 0.11421 -1.1845 0
0.45660999 0.11528 -1.1956 0
-0.87165999 0.13496999 -1.3848 0
-0.77437001 0.12016 -1.2329 0
-0.99612999 0.15663999 -1.5901 0
-0.88630003 0.14061999 -1.413 0
-0.75044 0.12041 -1.1981 0
-0.75225002 0.12232 -1.2051001 0
-0.75120002 0.12342 -1.2032 0
0.67601001 0.14171 -1.3816 0
-0.75015998 0.12443 -1.2014 0
0.67601001 0.14308 -1.3815 0
-0.75246 0.12637 -1.2092 0
0.45592999 0.12757 -1.2207 0
-0.86448997 0.14679 -1.3916 0
-0.74902999 0.12739 -1.2077 0
-0.91241997 0.15651 -1.4694999 0
-0.91009003 0.15666001 -1.471 0
-0.81449997 0.14050999 -1.3193001 0
-0.74321997 0.12849 -1.2064 0
0.45078 0.12989999 -1.2197 0
0.45539001 0.13036001 -1.224 0
-0.7489 0.13073 -1.2156 0
-0.74993002 0.13217001 -1.2172 0
-0.78763998 0.14019001 -1.2792 0
-0.75370997 0.13452999 -1.2276 0
-0.82015002 0.14782999 -1.3374 0
0.45146999 0.13596 -1.2299 0
-0.83662999 0.15218 -1.3645 0
0.45370999 0.13766 -1.2342 0
-0.75076997 0.1381 -1.2266001 0
0.45401999 0.13955 -1.2395 0
-0.75194001 0.14007001 -1.2327 0
0.24925999 0.1408 -1.2391 0
-0.79545999 0.14964999 -1.3051 0
-0.75256997 0.14322001 -1.2378 0
-0.75165999 0.14480001 -1.2405 0
-0.75572997 0.14684001 -1.2472 0
0.45087001 0.14681 -1.247 0
0.45137 0.15057001 -1.2575001 0
-0.75537997 0.1516 -1.2551 0
-0.84979999 0.17297 -1.4197 0
0.45071 0.15361001 -1.2608 0
-0.74794 0.15369999 -1.251 0
-0.75046003 0.15549999 -1.2551 0
-0.74549001 0.155 -1.2510999 0
-0.83195001 0.17412999 -1.3939 0
-0.75902998 0.15916 -1.2740999 0
-0.83326 0.17641 -1.401 0
-0.83326 0.17775001 -1.4009 0
0.44911999 0.16136999 -1.2718 0
-0.75954002 0.1636 -1.2790999 0
-0.75155002 0.16242 -1.2699 0
-0.75554001 0.16466001 -1.2766 0
-0.75503999 0.16587999 -1.2756 0
-0.77447999 0.17156 -1.309 0
-0.85095 0.18953 -1.4461 0
-0.75748003 0.17135 -1.2886 0
-0.82560003 0.18914001 -1.4119 0
-0.75392997 0.17433999 -1.2914 0
-0.75490999 0.17591 -1.2929 0
-0.73843998 0.17513999 -1.2873 0
-0.95436001 0.22516 -1.642 0
-0.77301002 0.18228 -1.3293 0
0.86158001 0.22532 -1.6431 0
-0.75281 0.17937 -1.2983 0
-0.75476998 0.18110999 -1.3016 0
-0.8179 0.19799 -1.4128 0
-0.75613999 0.18337999 -1.3085999 0
-0.82590002 0.20209 -1.432 0
-0.82590002 0.20349 -1.4318 0
-0.74861997 0.18539 -1.3044 0
0.84135997 0.23547 -1.6568 0
-0.77012998 0.19149999 -1.3377 0
-0.75395 0.18808 -1.3138 0
-0.73690999 0.18714 -1.3072 0
0.83487999 0.23820999 -1.6639 0
0.83757001 0.23796999 -1.6623 0
0.83868998 0.23738 -1.6582 0
-0.78934997 0.19850001 -1.3767999 0
-0.78934997 0.19986001 -1.3766 0
0.82486999 0.24087 -1.659 0
0.44288999 0.19278 -1.3183 0
-0.75993001 0.19644 -1.3335 0
-0.81484997 0.21246 -1.4321001 0
-0.75590003 0.19876 -1.3307 0
-0.75237 0.19854 -1.3293 0
-0.77964997 0.20863999 -1.3784 0
-0.75577998 0.20621 -1.3446 0
-0.75816 0.20837 -1.3487999 0
-0.76148999 0.21062 -1.3546 0
0.31141001 0.21046001 -1.3537 0
-0.75174999 0.21122999 -1.3415 0
-0.75718999 0.21360999 -1.3565 0
0.44503 0.21510001 -1.3660001 0
-0.75529999 0.21442001 -1.3528 0
-0.77012002 0.21957999 -1.3853 0
0.80789 0.26565 -1.676 0
0.80707002 0.26446 -1.6684999 0
-0.78849 0.22632 -1.4191 0
-0.75759 0.21803001 -1.3671 0
0.44525999 0.21881001 -1.3719 0
0.80808002 0.26633 -1.6698999 0
-0.75759 0.21955 -1.3668 0
-0.63023001 0.21888 -1.3627 0
-0.81485999 0.23804 -1.473 0
-0.76384002 0.22358 -1.3835 0
-0.61430001 0.22091 -1.367 0
0.80738002 0.27057999 -1.6743 0
-0.78911 0.23243 -1.4304 0
0.26894999 0.22352999 -1.3756 0
0.80738002 0.27204001 -1.6741 0
-0.7615 0.22543 -1.3787 0
-0.20347001 0.22325 -1.3654 0
0.82642001 0.27092999 -1.6569999 0
0.82910001 0.27067 -1.6554 0
0.83437002 0.27110001 -1.658 0
-0.76431 0.22781 -1.3837 0
0.44266 0.22765 -1.3827 0
0.48741001 0.18887 -1.1471 0
0.82898998 0.27346 -1.6609 0
-0.75976998 0.22858 -1.3802 0
-0.20381001 0.22668999 -1.3688999 0
0.32844999 0.22978 -1.3875 0
0.48741001 0.18994001 -1.147 0
0.80637997 0.27682 -1.6716 0
0.83437002 0.27449 -1.6575 0
0.83705002 0.27421999 -1.6559 0
0.83868998 0.27366999 -1.6526 0
0.84135997 0.27340999 -1.651 0
-0.77657002 0.23521 -1.4114 0
-0.76640999 0.23293 -1.3977 0
-0.20432 0.22905999 -1.3745 0
0.81718999 0.27746999 -1.665 0
0.82090998 0.27748999 -1.6651 0
0.84135997 0.27508 -1.6507 0
-0.77113998 0.23669 -1.4118 0
-0.65653998 0.23225001 -1.3853 0
-0.1278 0.2316 -1.3814 0
0.78627002 0.27748999 -1.6551 0
0.80185002 0.27886 -1.6633 0
0.80926001 0.27891001 -1.6636 0
0.81821001 0.27937999 -1.6665 0
0.84828001 0.27656999 -1.6497 0
-0.77258003 0.23948 -1.4197 0
-0.72841001 0.23425999 -1.3888 0
-0.62949002 0.23431 -1.3891 0
-0.20423999 0.23162 -1.3731 0
0.82848001 0.27983999 -1.659 0
0.83487999 0.27959001 -1.6575 0
-0.76611 0.23891 -1.4072 0
-0.20509 0.23475 -1.3827 0
-0.12730999 0.23111001 -1.3612 0
0.43994999 0.23657 -1.3934 0
0.83341002 0.27994001 -1.6488 0
0.84025002 0.28081 -1.654 0
0.84560001 0.28026 -1.6507 0
-0.75964999 0.23824 -1.3947001 0
-0.74984002 0.23871 -1.3975 0
-0.74579 0.2383 -1.3951 0
-0.55602998 0.23858 -1.3967 0
-0.2062 0.23831999 -1.3952 0
-0.12751 0.23382001 -1.3688999 0
0.34219 0.23993 -1.4046 0
-0.67927003 0.24031 -1.3992 0
0.81059998 0.28698 -1.6709 0
0.82280999 0.2832 -1.6489 0
0.82805997 0.28365001 -1.6515 0
-0.54140002 0.24260999 -1.4045 0
-0.12736 0.23536 -1.3625 0
0.40084001 0.24381 -1.4115 0
0.81059998 0.28858 -1.6706001 0
0.80976999 0.28727999 -1.6631 0
0.83875 0.28413001 -1.6447999 0
-0.69854999 0.24424 -1.4051 0
-0.12748 0.23765001 -1.3672 0
0.80194998 0.29100001 -1.6741 0
0.80517 0.29087999 -1.6734 0
0.80976999 0.28902999 -1.6628 0
0.82218999 0.28737 -1.6532 0
0.82796001 0.28797999 -1.6567 0
-0.76075 0.24694 -1.4121 0
-0.20569 0.2428 -1.3882999 0
-0.12763 0.24009 -1.3729 0
0.39548999 0.24784 -1.4172 0
0.79995 0.29212001 -1.6704 0
0.80466998 0.29245001 -1.6723 0
0.86901999 0.28571001 -1.6337 0
-0.76075 0.24834 -1.4118 0
-0.59969997 0.24912 -1.4162 0
0.81515998 0.29183 -1.6591001 0
0.83332998 0.29076001 -1.653 0
0.84508002 0.28992 -1.6482 0
0.85363001 0.28819001 -1.6382999 0
-0.75443 0.25049999 -1.4158 0
-0.20491999 0.24399 -1.3789999 0
-0.20055 0.23951 -1.3537 0
-0.12748 0.24177 -1.3665 0
0.86425 0.28968 -1.6373 0
0.8653 0.28895 -1.6331 0
0.86794001 0.28865999 -1.6315 0
-0.69314998 0.25303 -1.4217 0
-0.20449001 0.24450999 -1.3739001 0
-0.12782 0.2456 -1.38 0
0.83437002 0.29438001 -1.6540999 0
0.86425 0.29133999 -1.637 0
-0.20483001 0.2466 -1.3776 0
-0.12764999 0.24575999 -1.3729 0
0.83712 0.29471001 -1.6463 0
0.87111998 0.29179999 -1.6301 0
-0.76073003 0.25795999 -1.4329 0
-0.20491999 0.24812999 -1.3783 0
0.80808002 0.29962 -1.6643 0
-0.75799 0.25942999 -1.4329 0
-0.20372 0.24700999 -1.3643 0
0.80789 0.30232 -1.6698 0
0.84779 0.29679999 -1.6393 0
0.8531 0.29620999 -1.6361001 0
-0.75792998 0.26187 -1.4382 0
-0.75295001 0.26111001 -1.434 0
-0.20355 0.24801999 -1.3621 0
0.8204 0.30225 -1.66 0
0.84241003 0.30008 -1.648 0
0.86690998 0.29756001 -1.6342 0
-0.75287998 0.26356 -1.4392999 0
-0.73048002 0.26372001 -1.4402 0
-0.51121002 0.26363999 -1.4397 0
-0.20364 0.24956 -1.3628 0
0.81260997 0.30265 -1.6528 0
-0.2027 0.24894001 -1.3518 0
-0.12751 0.25150001 -1.3657 0
0.81325001 0.30339 -1.6475 0
0.82002002 0.30434999 -1.6526999 0
0.83385003 0.30410999 -1.6514 0
0.83653003 0.30381 -1.6497999 0
-0.80427003 0.28191999 -1.5223 0
-0.76823002 0.26993999 -1.4576 0
-0.76231998 0.26883999 -1.4517 0
-0.65351999 0.26811001 -1.4477 0
-0.61272001 0.26796001 -1.4469 0
-0.20313001 0.25121 -1.3565 0
-0.12733001 0.2516 -1.3586 0
-0.12728 0.26853999 -1.4500999 0
0.81325001 0.30504999 -1.6472 0
-0.80694002 0.28672001 -1.5394 0
-0.76444 0.27217999 -1.4614 0
-0.58271003 0.27034 -1.4515001 0
-0.21382999 0.27044001 -1.452 0
-0.20398 0.25442001 -1.3660001 0
0.81796998 0.30706999 -1.6487 0
0.82270998 0.30741 -1.6505001 0
0.84938997 0.30443001 -1.6345 0
0.85628003 0.30537 -1.6395 0
-0.89205998 0.32100999 -1.7138 0
-0.72825003 0.27200001 -1.4521 0
-0.21417999 0.27265999 -1.4556 0
0.80825001 0.31025001 -1.6562999 0
0.81910998 0.308 -1.6443 0
0.83116001 0.30945 -1.6521 0
0.85469002 0.30658001 -1.6367 0
-0.89205998 0.32277 -1.7134 0
-0.74276 0.27467 -1.4581 0
-0.12743001 0.25652 -1.3617001 0
0.81962001 0.30983999 -1.6447999 0
0.83348 0.30851001 -1.6377 0
0.86317998 0.30748999 -1.6323 0
0.86583 0.30717999 -1.6307 0
-0.77538002 0.28185001 -1.4881001 0
-0.76327002 0.2784 -1.4699 0
-0.53961998 0.27693999 -1.4622 0
-0.20287 0.25615999 -1.3525 0
-0.12726 0.25657001 -1.3546 0
0.82867002 0.31088999 -1.6415 0
-0.77564001 0.28448001 -1.4943 0
-0.61252999 0.27902001 -1.4657 0
-0.20243999 0.25650001 -1.3474 0
-0.12777001 0.26177001 -1.375 0
0.83763999 0.31294999 -1.6438 0
0.84298003 0.31233001 -1.6406 0
0.84672999 0.31123999 -1.6349 0
-0.77564001 0.2859 -1.494 0
-0.76090997 0.2814 -1.4705 0
-0.69112003 0.28106001 -1.4687001 0
-0.57436001 0.28145 -1.4708 0
-0.47567999 0.28159001 -1.4715 0
-0.21566001 0.28152999 -1.4712 0
-0.12758 0.26157001 -1.3669 0
0.83219999 0.31623 -1.6525 0
0.84779 0.31312001 -1.6363 0
-0.76839 0.28573 -1.4852 0
-0.76117003 0.28409001 -1.4766001 0
-0.74862999 0.28376001 -1.475 0
-0.66746998 0.2832 -1.472 0
-0.55680001 0.28345001 -1.4733 0
-0.12738 0.26141 -1.3588001 0
0.80637997 0.32010001 -1.6638 0
0.81397998 0.31904 -1.6583 0
-0.78222001 0.29374 -1.5187 0
-0.38054001 0.28692999 -1.4835 0
-0.37795001 0.28683999 -1.483 0
-0.12729 0.26199999 -1.3546 0
-0.1279 0.28516999 -1.4744 0
0.80487001 0.32124999 -1.661 0
0.82014 0.31799999 -1.6441 0
0.86901999 0.31494001 -1.6283 0
-0.68084002 0.28836 -1.483 0
-0.67806 0.28838 -1.4831001 0
-0.67488998 0.28821999 -1.4822 0
-0.65587002 0.28849 -1.4836 0
-0.65235001 0.28815001 -1.4819 0
-0.61214 0.28869 -1.4845999 0
-0.51512998 0.28814 -1.4818 0
-0.46191001 0.28885999 -1.4855 0
-0.45925999 0.2888 -1.4852 0
-0.12709001 0.26181999 -1.3465 0
-0.12815 0.28874001 -1.4849 0
0.43382001 0.28836 -1.483 0
0.81718999 0.3222 -1.6569999 0
0.81734002 0.32106999 -1.6512001 0
0.81234002 0.31830999 -1.637 0
0.85042 0.3188 -1.6395 0
0.85575002 0.31817001 -1.6362 0
0.86956 0.31672999 -1.6289001 0
-0.76950002 0.29181001 -1.4924999 0
-0.76403999 0.29082999 -1.4875 0
-0.74167001 0.29010999 -1.4839 0
-0.73927999 0.29032999 -1.485 0
-0.72843999 0.29065999 -1.4867001 0
-0.64868999 0.29056999 -1.4862 0
-0.59707999 0.29087001 -1.4877 0
-0.12918 0.26280999 -1.3442 0
-0.12740999 0.26570001 -1.359 0
0.82238001 0.31972 -1.6353 0
-0.80554003 0.30892 -1.571 0
-0.76947999 0.29578 -1.5042 0
-0.76227999 0.29409999 -1.4957 0
-0.73532999 0.29271001 -1.4886 0
-0.21714 0.29227 -1.4864 0
-0.12748 0.26774001 -1.3616 0
0.82104999 0.32455999 -1.6506 0
-0.80554003 0.31051999 -1.5707 0
-0.80299002 0.31075999 -1.5719 0
-0.76705003 0.29754001 -1.5051 0
-0.76159 0.29655001 -1.5 0
-0.75572002 0.29537001 -1.4941 0
-0.75287998 0.29541999 -1.4943 0
-0.72330999 0.29530001 -1.4937 0
-0.71965998 0.29497999 -1.4921 0
-0.71202999 0.29543 -1.4944 0
-0.67348999 0.29611999 -1.4979 0
-0.66953999 0.2956 -1.4952 0
-0.52824003 0.29604 -1.4974999 0
-0.40637001 0.29593 -1.4969 0
-0.37834999 0.29570001 -1.4958 0
-0.21775 0.29513001 -1.4929 0
-0.12721001 0.26699999 -1.3506 0
-0.12851 0.29648 -1.4997 0
0.24914999 0.29684001 -1.5015 0
0.35201001 0.29718 -1.5033 0
0.42116001 0.28935999 -1.4637001 0
0.85042 0.32392001 -1.6385 0
-0.80910999 0.31597 -1.5905 0
-0.76721001 0.30022001 -1.5113 0
-0.70881999 0.29795 -1.4998 0
-0.70559001 0.2978 -1.4991 0
-0.70276999 0.29782999 -1.4992 0
-0.64591998 0.2978 -1.4991 0
-0.2181 0.29730001 -1.4965 0
-0.12752999 0.27078 -1.3631001 0
0.1812 0.29901001 -1.5051 0
0.34744999 0.29907 -1.5055 0
0.42928001 0.29909 -1.5055 0
0.43065 0.29835999 -1.5019 0
0.42914999 0.29618001 -1.4909 0
0.85097998 0.3233 -1.6275001 0
0.85574001 0.32249001 -1.6234 0
-0.76131999 0.30048999 -1.505 0
-0.69792998 0.29969001 -1.501 0
-0.12752999 0.2721 -1.3628 0
0.43349001 0.30127001 -1.5089 0
0.82424998 0.32922 -1.6489 0
0.83718002 0.32631999 -1.6344 0
0.84245998 0.32683 -1.6368999 0
0.85363001 0.32570001 -1.6313 0
0.85680997 0.32554001 -1.6305 0
-0.76261002 0.30261001 -1.5074 0
-0.75975001 0.30265999 -1.5075999 0
-0.75603002 0.30235001 -1.5061001 0
-0.74787998 0.30267 -1.5077 0
-0.74132001 0.30239999 -1.5063 0
-0.73360002 0.30287999 -1.5087 0
-0.72951001 0.30239001 -1.5063 0
-0.69867003 0.30292001 -1.5089 0
-0.63001001 0.30267 -1.5077 0
-0.61676002 0.30302 -1.5094 0
-0.57757998 0.30265 -1.5075999 0
-0.21879999 0.30188 -1.5037 0
-0.12721001 0.27096999 -1.3498 0
0.090099998 0.30403 -1.5144 0
0.23469 0.30418 -1.5152 0
0.24156 0.30344999 -1.5115 0
0.41637999 0.30412 -1.5149 0
0.41780001 0.30338001 -1.5112 0
0.42093 0.30357999 -1.5122 0
-0.80480999 0.32168001 -1.5937999 0
-0.76747 0.30745 -1.5232 0
-0.75988001 0.30553001 -1.5138 0
-0.75658 0.30540001 -1.5131 0
-0.70877999 0.30513 -1.5118001 0
-0.70473999 0.30462 -1.5092 0
-0.68889999 0.30531001 -1.5127 0
-0.68607002 0.30533001 -1.5128 0
-0.68246001 0.30498999 -1.5111001 0
-0.61641002 0.30588999 -1.5154999 0
-0.61188 0.30495 -1.5109 0
-0.55252999 0.30546001 -1.5134 0
-0.36480999 0.30581999 -1.5152 0
-0.28676999 0.30572999 -1.5148 0
-0.20193 0.27017999 -1.3386 0
-0.12890001 0.30581 -1.5152 0
0.048305001 0.30638 -1.518 0
0.29312 0.30645999 -1.5184 0
0.36614999 0.30684 -1.5202 0
0.38708001 0.30627999 -1.5175 0
0.39083999 0.30686 -1.5203 0
0.82703 0.33118999 -1.6409 0
-0.84640002 0.34206 -1.6858 0
-0.42747 0.30838999 -1.5199 0
-0.20287 0.27373001 -1.349 0
-0.12729 0.27436 -1.3521 0
-0.12896 0.30796 -1.5178 0
-0.12664001 0.30917001 -1.5237 0
0.38378 0.30910999 -1.5233999 0
0.43248001 0.30838999 -1.5199 0
0.81331003 0.33680999 -1.6599 0
-0.84640002 0.34375 -1.6855 0
-0.76415002 0.31040999 -1.522 0
-0.72218001 0.31029001 -1.5214 0
-0.58064997 0.31064999 -1.5232 0
-0.55347002 0.31077999 -1.5238 0
-0.53903002 0.31022999 -1.5211 0
-0.42322001 0.31072 -1.5235 0
-0.12748 0.27731001 -1.3597 0
0.024419 0.31152001 -1.5274 0
0.24603 0.31176999 -1.5287 0
0.35505 0.31147999 -1.5273 0
0.41343001 0.31174001 -1.5285 0
0.42192 0.30430001 -1.4921 0
0.80958998 0.33844 -1.6595 0
0.85841 0.33276999 -1.6316 0
-0.81971002 0.33546999 -1.6368001 0
-0.76508999 0.31356001 -1.5299 0
-0.75963998 0.31252 -1.5249 0
-0.75597 0.31353 -1.5298001 0
-0.74352998 0.31202999 -1.5224 0
-0.74147999 0.31244001 -1.5244 0
-0.71557999 0.31277999 -1.5261 0
-0.70046002 0.31255999 -1.525 0
-0.50361001 0.3132 -1.5282 0
-0.16078 0.27274001 -1.3307 0
-0.12740999 0.27801999 -1.3565 0
0.35041001 0.31345999 -1.5294 0
0.42787001 0.31344 -1.5293 0
0.81059998 0.34039 -1.6608 0
-0.83067 0.34314999 -1.6661 0
-0.76176 0.31490999 -1.529 0
-0.63113999 0.31529999 -1.5309 0
-0.60009003 0.31523001 -1.5305001 0
-0.22407 0.31579 -1.5332 0
-0.22028001 0.31281999 -1.5188 0
-0.12724 0.27792001 -1.3494 0
0.33274999 0.31582999 -1.5334001 0
0.39340001 0.29469001 -1.4308 0
0.82361001 0.34022 -1.6518 0
-0.83067 0.3448 -1.6658 0
-0.76558 0.31806999 -1.5367 0
-0.76182002 0.31775999 -1.5351 0
-0.75806999 0.31744 -1.5336 0
-0.72825003 0.31751001 -1.5339 0
-0.72456002 0.31718001 -1.5323 0
-0.62439001 0.31775001 -1.5351 0
-0.62190002 0.31794 -1.536 0
-0.61838001 0.31755 -1.5341001 0
-0.57771999 0.31830001 -1.5377001 0
-0.57209998 0.31825 -1.5375 0
-0.41099 0.31821999 -1.5374 0
-0.33603001 0.31827 -1.5376 0
-0.22089 0.31573001 -1.5253 0
-0.12721001 0.27904999 -1.3480999 0
0.1476 0.31889999 -1.5407 0
0.25432 0.31874999 -1.5398999 0
0.30533999 0.31896001 -1.5409 0
0.31116 0.31926 -1.5424 0
0.35784999 0.27673 -1.3369 0
0.80789 0.34020001 -1.6435 0
0.81375998 0.33972999 -1.6413 0
0.87958002 0.3348 -1.6174001 0
-0.77916002 0.32550001 -1.5647 0
-0.76563001 0.32093999 -1.5427999 0
-0.74270999 0.32016999 -1.5391001 0
-0.71539998 0.31996 -1.5381 0
-0.69520003 0.32016 -1.539 0
-0.67394 0.31974 -1.5369999 0
-0.52385998 0.32053 -1.5408 0
-0.22142 0.31845999 -1.5309 0
-0.17906 0.27399001 -1.3171 0
-0.12718999 0.28018001 -1.3469 0
0.35992 0.32056001 -1.5409 0
0.37083 0.32047999 -1.5405999 0
0.41852 0.32058999 -1.5411 0
0.39984 0.30399001 -1.4613 0
0.80135 0.34332001 -1.6504 0
0.80453998 0.34316999 -1.6497 0
0.81808001 0.34035999 -1.6361001 0
0.86053002 0.33864 -1.6279 0
-0.77577001 0.32692999 -1.5638 0
-0.64392 0.32214999 -1.5409 0
-0.2208 0.31856 -1.5237 0
-0.20202 0.27965999 -1.3377 0
-0.12774999 0.28623 -1.3691 0
0.36456001 0.3233 -1.5464 0
0.37865001 0.32343 -1.5470001 0
0.40917 0.32325 -1.5461 0
0.3301 0.26664999 -1.2754 0
0.80185002 0.34514001 -1.6509 0
0.80756998 0.34588 -1.6544 0
0.83932 0.34055001 -1.6289001 0
0.85894001 0.34095001 -1.6308 0
0.87111998 0.33888999 -1.6209 0
0.88801998 0.33713999 -1.6126 0
-0.77577001 0.32852 -1.5634 0
-0.76564997 0.32539999 -1.5486 0
-0.71026999 0.32484999 -1.546 0
-0.70697999 0.32469001 -1.5452 0
-0.68633997 0.32468 -1.5452 0
-0.68308002 0.32451001 -1.5444 0
-0.54890001 0.32571 -1.5501 0
-0.43775001 0.32559001 -1.5495 0
-0.42997 0.32574999 -1.5503 0
-0.3669 0.32573 -1.5502 0
-0.25386 0.32605001 -1.5517 0
-0.22566999 0.32559001 -1.5495 0
-0.22142 0.32154 -1.5302 0
-0.12751 0.28556001 -1.359 0
-0.12971 0.32525 -1.5479 0
0.28711 0.32609999 -1.552 0
0.37456 0.32591999 -1.5511 0
0.38969001 0.32662001 -1.5544 0
0.40831 0.32596001 -1.5513 0
0.29005 0.24555001 -1.1686 0
0.81375998 0.34466001 -1.6403 0
-0.76986003 0.32888001 -1.5572 0
-0.76481003 0.32800001 -1.553 0
-0.75977999 0.32712001 -1.5488 0
-0.75602001 0.32679 -1.5472 0
-0.72970998 0.32719001 -1.5491 0
-0.70137 0.32789999 -1.5525 0
-0.67703998 0.32751 -1.5506001 0
-0.65935999 0.3274 -1.5501 0
-0.65648001 0.32741001 -1.5502 0
-0.64533001 0.32763001 -1.5512 0
-0.64029002 0.32802001 -1.5531 0
-0.61096001 0.3276 -1.5511 0
-0.53406 0.32848001 -1.5552 0
-0.49790001 0.32806 -1.5532 0
-0.48954001 0.32789001 -1.5524 0
-0.28003001 0.32868999 -1.5562 0
-0.22612 0.32822999 -1.554 0
-0.22194 0.32436001 -1.5357 0
-0.12808999 0.29192999 -1.3822 0
0.085942 0.32868999 -1.5562 0
0.14304 0.32905999 -1.558 0
0.19529 0.32896999 -1.5575 0
-0.76942998 0.33162999 -1.5624 0
-0.76396 0.33056 -1.5573 0
-0.75893003 0.32967001 -1.5531 0
-0.74132001 0.32995 -1.5545 0
-0.73636001 0.32903999 -1.5502 0
-0.73465002 0.32966 -1.5531 0
-0.72960001 0.33012 -1.5553 0
-0.70116001 0.33083001 -1.5585999 0
-0.69786 0.33065999 -1.5578001 0
-0.69418001 0.3303 -1.5561 0
-0.69089001 0.33013999 -1.5554 0
-0.67601001 0.33004001 -1.5549001 0
-0.60758001 0.33050999 -1.5571001 0
-0.22054 0.32258999 -1.5197999 0
-0.12817 0.29394001 -1.3848 0
0.081249997 0.331 -1.5594 0
0.17773999 0.33144999 -1.5616 0
0.18047 0.33155999 -1.562 0
0.19942001 0.33205 -1.5644 0
0.38082999 0.33129001 -1.5608 0
0.80366999 0.35213 -1.659 0
-0.76942998 0.33311999 -1.5621001 0
-0.74882001 0.3321 -1.5573 0
-0.73452997 0.33250999 -1.5592 0
-0.72201002 0.33228001 -1.5582 0
-0.71907997 0.33232 -1.5583 0
-0.68949997 0.33241001 -1.5588 0
-0.66952002 0.33273 -1.5603 0
-0.62006003 0.33261001 -1.5597 0
-0.61786002 0.333 -1.5615 0
-0.59711999 0.33252999 -1.5592999 0
-0.51661998 0.33281001 -1.5606 0
-0.48989001 0.33328 -1.5628 0
-0.38529 0.33324 -1.5627 0
-0.32255 0.33342999 -1.5635999 0
-0.23237 0.33386999 -1.5656 0
-0.22071999 0.32446 -1.5215 0
-0.12820999 0.29567999 -1.3865 0
-0.13003001 0.3328 -1.5606 0
-0.094503999 0.33329999 -1.5628999 0
-0.089405999 0.33392 -1.5658 0
0.15266 0.33430001 -1.5676 0
0.19198 0.33406001 -1.5664999 0
0.37606001 0.33331999 -1.563 0
0.41104999 0.33394 -1.5659 0
0.41613999 0.33357 -1.5642 0
0.80724001 0.3511 -1.6464 0
0.80484998 0.34897 -1.6364 0
0.81209999 0.35025999 -1.6425 0
0.82710999 0.3479 -1.6314 0
0.83456999 0.34671 -1.6258 0
-0.76938999 0.33601999 -1.5682 0
-0.76517999 0.33550999 -1.5658 0
-0.71850997 0.33502001 -1.5635999 0
-0.66881001 0.33543 -1.5655 0
-0.66553003 0.33524999 -1.5646 0
-0.65390998 0.33529001 -1.5648 0
-0.65065998 0.3351 -1.5639 0
-0.64775997 0.33511001 -1.564 0
-0.63652998 0.33532 -1.5649 0
-0.59078997 0.33537999 -1.5652 0
-0.57742 0.33587 -1.5675 0
-0.57393003 0.33544999 -1.5656 0
-0.51546001 0.33548 -1.5657001 0
-0.51264 0.33543 -1.5655 0
-0.50981998 0.33537999 -1.5653 0
-0.50782001 0.33594 -1.5678 0
-0.48557001 0.33568999 -1.5667 0
-0.46090001 0.33550999 -1.5658 0
-0.40215001 0.33575001 -1.567 0
-0.36765999 0.33568001 -1.5666 0
-0.22736 0.33568999 -1.5667 0
-0.22089 0.32635 -1.5231 0
-0.20193 0.28611001 -1.3353 0
-0.12826 0.29743999 -1.3882 0
0.22761001 0.33658999 -1.5709 0
0.36394 0.33609 -1.5685 0
0.79663998 0.35278001 -1.6464 0
0.80470997 0.35179001 -1.6418 0
0.80434 0.35038 -1.6352 0
0.81414002 0.35257 -1.6454999 0
-0.77016997 0.33939001 -1.5762 0
-0.76428998 0.33809999 -1.5702 0
-0.75966001 0.33739001 -1.5669 0
-0.63826001 0.33789 -1.5692 0
-0.63212001 0.33769 -1.5683 0
-0.60645998 0.33783001 -1.5689 0
-0.50351 0.33842999 -1.5717 0
-0.45931 0.33805001 -1.5699 0
-0.42769 0.33875 -1.5732 0
-0.39785999 0.33838001 -1.5714999 0
-0.21879999 0.32286 -1.4994 0
-0.12908 0.28747001 -1.3351001 0
-0.12743001 0.29168999 -1.3546 0
0.11989 0.33915001 -1.575 0
0.13301 0.33916 -1.5750999 0
0.33465999 0.33866999 -1.5728 0
0.33807001 0.33912 -1.5749 0
0.34062999 0.33895999 -1.5742 0
-0.80097997 0.35519999 -1.6416 0
-0.76678002 0.34083 -1.5752 0
-0.76337999 0.34068999 -1.5745 0
-0.75917 0.34017 -1.5721 0
-0.75455999 0.33945 -1.5688 0
-0.71319997 0.34002 -1.5714 0
-0.70947999 0.33965999 -1.5698 0
-0.60233003 0.34038001 -1.5731 0
-0.49891999 0.34071001 -1.5746 0
-0.30899 0.34108999 -1.5764 0
-0.30386001 0.34125 -1.5771 0
-0.30129001 0.34132001 -1.5775 0
-0.21863 0.32394001 -1.4971 0
-0.12740999 0.29284 -1.3534 0
-0.1303 0.34 -1.5713 0
0.013773 0.34173 -1.5793999 0
0.18421 0.34186 -1.5799 0
0.27019 0.34154001 -1.5785 0
0.31521001 0.3423 -1.582 0
0.31751001 0.34195 -1.5804 0
0.3335 0.34141999 -1.5779001 0
0.33691001 0.34187001 -1.58 0
0.34720001 0.34121999 -1.577 0
0.36785001 0.34186 -1.58 0
0.37042001 0.34169 -1.5792 0
0.38676 0.34123999 -1.5771 0
0.38964 0.34125999 -1.5772001 0
0.39798 0.34112 -1.5765001 0
0.80352998 0.35598001 -1.6452 0
0.81128001 0.35747001 -1.6521 0
0.81601 0.35786 -1.6539 0
0.83073997 0.35403001 -1.6362 0
0.83556002 0.35315999 -1.6322 0
-0.77174997 0.34468001 -1.5855 0
-0.76669002 0.34377 -1.5813 0
-0.75825 0.34272 -1.5765001 0
-0.75364 0.34198999 -1.5731 0
-0.75107998 0.34222999 -1.5743001 0
-0.74851 0.34248 -1.5754 0
-0.74514002 0.34233001 -1.5747 0
-0.73071003 0.34274 -1.5766 0
-0.68272001 0.34281999 -1.577 0
-0.56133997 0.34299001 -1.5777 0
-0.31773001 0.34386 -1.5817 0
-0.22852001 0.34312001 -1.5783 0
-0.21923999 0.32688001 -1.5036 0
-0.12738 0.29394001 -1.3521 0
-0.13049001 0.34322 -1.5788 0
-0.019587999 0.34415001 -1.5831 0
0.094860002 0.34406999 -1.5827 0
0.1798 0.34444001 -1.5844001 0
0.31397 0.34502 -1.5871 0
0.36071 0.34432 -1.5839 0
0.80926001 0.35834 -1.6483999 0
0.82874 0.35363999 -1.6267 0
-0.76958001 0.34669 -1.5872 0
-0.75731999 0.34529001 -1.5808001 0
-0.75392997 0.34514999 -1.5802 0
-0.74756002 0.34505001 -1.5797 0
-0.74498999 0.34529001 -1.5808001 0
-0.74201 0.34534001 -1.581 0
-0.72931999 0.34512001 -1.58 0
-0.67905003 0.34560001 -1.5822999 0
-0.58304 0.34573999 -1.5829 0
-0.56026 0.34573999 -1.5829 0
-0.43380001 0.34661001 -1.5869 0
-0.40841001 0.34562001 -1.5822999 0
-0.40583 0.34573001 -1.5828 0
-0.12804 0.30103001 -1.3782001 0
0.061500002 0.34689999 -1.5882 0
0.17518 0.34683001 -1.5879 0
0.28395 0.34696999 -1.5885 0
0.35960001 0.34707001 -1.589 0
0.81260997 0.35855001 -1.6415 0
0.83243001 0.35527 -1.6265 0
-0.78816998 0.35708001 -1.6269 0
-0.76576 0.34796 -1.5853 0
-0.75296998 0.34777999 -1.5845 0
-0.74997997 0.34783 -1.5847 0
-0.73764998 0.34781 -1.5847 0
-0.72495002 0.34757999 -1.5836 0
-0.70418 0.34781 -1.5847 0
-0.70084 0.34764001 -1.5839 0
-0.69862998 0.34807 -1.5858001 0
-0.69567001 0.34808999 -1.5858999 0
-0.67755997 0.34801999 -1.5856 0
-0.67316002 0.34724 -1.5821 0
-0.66211998 0.3477 -1.5841 0
-0.65917999 0.34771001 -1.5842 0
-0.55309999 0.34827 -1.5867 0
-0.54447001 0.34816 -1.5862 0
-0.51921999 0.34818 -1.5863 0
-0.51662999 0.34834 -1.5871 0
-0.45892999 0.34871 -1.5888 0
-0.44764 0.34841001 -1.5874 0
-0.34869999 0.34942999 -1.592 0
-0.25872001 0.34951001 -1.5924 0
-0.25071999 0.34926 -1.5913 0
-0.1276 0.29857001 -1.3602999 0
-0.13067 0.34808999 -1.5858999 0
-0.12817 0.34896001 -1.5899 0
0.12021 0.34973001 -1.5934 0
0.24928001 0.34951001 -1.5924 0
0.25209999 0.34959 -1.5928 0
0.25516 0.34988001 -1.5941 0
0.28233999 0.34955001 -1.5926 0
0.32881001 0.34885001 -1.5894001 0
0.33223999 0.34931001 -1.5915 0
0.34865001 0.34895 -1.5898 0
0.36454999 0.35014999 -1.5953 0
0.86000001 0.35628 -1.6232001 0
0.86317998 0.35609999 -1.6224 0
0.86583 0.35574001 -1.6208 0
-0.76986998 0.35152 -1.5939 0
-0.76686001 0.35157999 -1.5941 0
-0.76261997 0.35104999 -1.5917 0
-0.70460999 0.35124001 -1.5926 0
-0.69085997 0.35034001 -1.5885 0
-0.67975003 0.35082999 -1.5907 0
-0.67606997 0.35044 -1.589 0
-0.65872002 0.35071999 -1.5903 0
-0.63845998 0.35095999 -1.5913 0
-0.63552999 0.35095999 -1.5913 0
-0.62019998 0.35054001 -1.5894001 0
-0.61307001 0.35152999 -1.5939 0
-0.60948998 0.35112 -1.592 0
-0.60689002 0.35131001 -1.5929 0
-0.58357 0.35117 -1.5923001 0
-0.55255997 0.35148001 -1.5937001 0
-0.54938 0.35124001 -1.5926 0
-0.54649001 0.35120001 -1.5924 0
-0.54332 0.35095999 -1.5913 0
-0.49043 0.35126001 -1.5927 0
-0.48758 0.35120001 -1.5924 0
-0.47124001 0.35144001 -1.5935 0
-0.22984999 0.35108 -1.5919 0
-0.21854 0.32968 -1.4948 0
-0.12743001 0.29844001 -1.3532 0
-0.1309 0.35185 -1.5953 0
0.086367004 0.35231 -1.5975 0
0.32526001 0.35202 -1.5961 0
0.32841 0.35227001 -1.5973001 0
0.41117001 0.35212001 -1.5966001 0
0.41474 0.35253999 -1.5985 0
0.41637999 0.35172999 -1.5948 0
0.41929999 0.35174 -1.5949 0
0.80202001 0.36195999 -1.6411999 0
-0.77178001 0.35554001 -1.6045001 0
-0.76507002 0.35382 -1.5967 0
-0.73342001 0.35350999 -1.5953 0
-0.72925001 0.35295001 -1.5928 0
-0.72365999 0.35323 -1.594 0
-0.70949 0.3538 -1.5966001 0
-0.70352 0.35385999 -1.5969 0
-0.65458 0.35334 -1.5946 0
-0.63462001 0.35376999 -1.5965 0
-0.60526001 0.35371 -1.5962 0
-0.57928997 0.35374999 -1.5964 0
-0.54532999 0.354 -1.5975 0
-0.53060001 0.35358 -1.5956 0
-0.52771997 0.35354 -1.5954 0
-0.50057 0.35427999 -1.5987999 0
-0.43384999 0.35407001 -1.5978 0
-0.39886999 0.35457999 -1.6001 0
-0.37963 0.35429001 -1.5987999 0
-0.36603999 0.35416999 -1.5983 0
-0.33634001 0.35394999 -1.5973001 0
-0.33388999 0.35425001 -1.5986 0
-0.32881999 0.35464001 -1.6004 0
-0.23039 0.35396999 -1.5974 0
-0.21749 0.32859001 -1.4828 0
-0.12797 0.30454999 -1.3744 0
-0.089197002 0.35503 -1.6022 0
-0.078745 0.35479999 -1.6011 0
0.018262999 0.35495001 -1.6018 0
0.020956 0.35512 -1.6026 0
0.044305 0.35425001 -1.5986 0
0.047201999 0.35484001 -1.6013 0
0.097563997 0.35490999 -1.6016001 0
0.20197 0.35448 -1.5997 0
0.28220001 0.35499001 -1.602 0
0.28556001 0.35547 -1.6042 0
0.28841999 0.35554001 -1.6045001 0
0.31327999 0.35523 -1.6030999 0
0.38350999 0.35455 -1.6 0
0.38966 0.35481 -1.6012 0
0.80202001 0.36359999 -1.6409 0
0.81027001 0.36532 -1.6486 0
0.88221002 0.35698 -1.6109999 0
-0.78899997 0.36548001 -1.6415 0
-0.76875001 0.35721001 -1.6044 0
-0.76409 0.35646999 -1.6011 0
-0.76025999 0.35613 -1.5994999 0
-0.74479002 0.35618001 -1.5997 0
-0.73917001 0.35646999 -1.601 0
-0.73615998 0.35651001 -1.6012 0
-0.73198003 0.35595 -1.5987 0
-0.72859001 0.35578999 -1.598 0
-0.72298998 0.35607001 -1.5992 0
-0.71884 0.35550001 -1.5967 0
-0.71585 0.35554001 -1.5969 0
-0.71399999 0.35617 -1.5997 0
-0.70129001 0.35589001 -1.5985 0
-0.69234002 0.35597 -1.5987999 0
-0.68899 0.35578999 -1.598 0
-0.68079001 0.35626 -1.6001 0
-0.65372002 0.35617 -1.5997 0
-0.65075999 0.35618001 -1.5998 0
-0.52758998 0.35718 -1.6043 0
-0.52386999 0.35651001 -1.6012 0
-0.49349999 0.35697001 -1.6033 0
-0.42906001 0.35635 -1.6005 0
-0.37476999 0.35653001 -1.6013 0
-0.37215999 0.35664001 -1.6018 0
-0.30789 0.35692 -1.6030999 0
-0.29714999 0.35679999 -1.6025 0
-0.27083001 0.35729 -1.6048 0
-0.23634 0.3572 -1.6043 0
-0.2154 0.32488 -1.4592 0
-0.023576001 0.35734001 -1.605 0
0.013324 0.35751 -1.6057 0
0.15728 0.35766 -1.6064 0
0.16794001 0.35747999 -1.6056 0
0.19546001 0.35791999 -1.6076 0
0.19769999 0.35738 -1.6051 0
0.27219999 0.35758999 -1.6061 0
0.27483001 0.35745001 -1.6054 0
0.27745 0.35730001 -1.6048 0
0.28080001 0.35778999 -1.607 0
0.30856001 0.35756999 -1.6059999 0
0.34220001 0.35732001 -1.6049 0
0.35558 0.35668001 -1.602 0
0.40294001 0.35752001 -1.6058 0
0.4136 0.34777999 -1.562 0
0.80992001 0.3655 -1.6416 0
0.84886003 0.36114001 -1.622 0
0.85947001 0.36098 -1.6213 0
0.87431002 0.35969999 -1.6156 0
0.87695003 0.35933 -1.6138999 0
-0.77038002 0.35962999 -1.6076 0
-0.75926 0.35879999 -1.6039 0
-0.72792 0.35865 -1.6032 0
-0.72530001 0.35889 -1.6043 0
-0.72229999 0.35892999 -1.6045001 0
-0.68485999 0.35846999 -1.6023999 0
-0.67365998 0.35894999 -1.6045001 0
-0.66508001 0.35918999 -1.6056 0
-0.66210002 0.3592 -1.6057 0
-0.65877998 0.35901001 -1.6048 0
-0.62289 0.35883 -1.604 0
-0.56278998 0.35947999 -1.6069 0
-0.55987 0.35945001 -1.6068 0
-0.48927 0.35973999 -1.6081001 0
-0.46676999 0.35962999 -1.6076 0
-0.46366999 0.35935 -1.6063 0
-0.44415 0.35924 -1.6058 0
-0.42774001 0.35936999 -1.6064 0
-0.42028001 0.36017001 -1.61 0
-0.41701999 0.35966 -1.6077 0
-0.27893001 0.35914999 -1.6054 0
-0.23417 0.35995999 -1.6091 0
-0.23109999 0.35892999 -1.6044 0
-0.21322 0.32091999 -1.4345 0
-0.11549 0.36063999 -1.6121 0
0.18776999 0.36008999 -1.6095999 0
0.25735 0.36089 -1.6131999 0
0.36899 0.35969001 -1.6079 0
0.37191001 0.35971999 -1.608 0
0.42289001 0.36067 -1.6122 0
0.80672997 0.36732 -1.642 0
0.81695002 0.36575001 -1.6349 0
0.85095 0.36480999 -1.6307 0
-0.77142 0.3633 -1.6164 0
-0.75218999 0.36155999 -1.6086 0
-0.65491998 0.36186999 -1.61 0
-0.62191999 0.36166999 -1.6091 0
-0.61928999 0.36186999 -1.61 0
-0.48763999 0.36234999 -1.6121 0
-0.48425999 0.36186001 -1.61 0
-0.41543001 0.36245999 -1.6126 0
-0.41238001 0.36215001 -1.6113 0
-0.39070001 0.36243999 -1.6126 0
-0.35832 0.36285001 -1.6144 0
-0.23198999 0.36272001 -1.6138 0
-0.21182001 0.31885999 -1.4187 0
-0.13119 0.36109999 -1.6066 0
-0.12869 0.36243001 -1.6125 0
0.0034246 0.36287001 -1.6145 0
0.12411 0.36359 -1.6177 0
0.20246001 0.36285999 -1.6144 0
0.24702001 0.36324999 -1.6162 0
0.34292001 0.36324999 -1.6161 0
0.35141 0.36316001 -1.6158 0
0.35291001 0.36214 -1.6112 0
0.35698 0.36302 -1.6151 0
0.36432001 0.36208001 -1.6109 0
0.36754 0.36232001 -1.612 0
0.37075999 0.36256 -1.6131001 0
0.42548999 0.36394 -1.6192 0
0.42421001 0.36126 -1.6073 0
0.81796998 0.36776 -1.6362 0
0.84508002 0.36697999 -1.6328 0
-0.78223002 0.36862999 -1.6327 0
-0.76898003 0.36366999 -1.6107 0
-0.76674998 0.36412001 -1.6127 0
-0.75115001 0.36419001 -1.613 0
-0.74693 0.36363 -1.6105 0
-0.72009999 0.36421001 -1.6131001 0
-0.70089 0.36377999 -1.6112 0
-0.64770001 0.36449 -1.6143 0
-0.64105999 0.36408001 -1.6125 0
-0.63775003 0.36386999 -1.6116 0
-0.63477999 0.36386999 -1.6116 0
-0.62983 0.36449 -1.6143 0
-0.60874999 0.36423001 -1.6131999 0
-0.58279997 0.36449 -1.6144 0
-0.57691002 0.36445001 -1.6141 0
-0.45811 0.36508 -1.6169 0
-0.44132999 0.36502999 -1.6167001 0
-0.3892 0.36542001 -1.6184 0
-0.28062001 0.36537999 -1.6183 0
-0.21112999 0.31848001 -1.4105999 0
-0.1314 0.36465001 -1.615 0
-0.12882 0.36532 -1.618 0
0.21727 0.36557001 -1.6191 0
0.29605001 0.36605 -1.6213 0
0.31273001 0.36577001 -1.62 0
0.3159 0.36603001 -1.6212 0
0.31803 0.36544999 -1.6186 0
0.32622999 0.36517999 -1.6174001 0
0.32942 0.36544001 -1.6185 0
0.33234 0.36548999 -1.6188 0
0.33581001 0.36596 -1.6208 0
0.41624999 0.36528 -1.6178 0
0.42050999 0.36612999 -1.6216 0
0.42155001 0.36489001 -1.6161 0
0.42614001 0.36594 -1.6207 0
0.42061001 0.36052999 -1.5968 0
-0.78223002 0.37024 -1.6323 0
-0.76694 0.36423999 -1.6059 0
-0.77038997 0.36752999 -1.6204 0
-0.76388001 0.36743999 -1.62 0
-0.75962001 0.36688 -1.6174999 0
-0.75049001 0.36704001 -1.6181999 0
-0.74625999 0.36647999 -1.6157 0
-0.73755002 0.36680999 -1.6172 0
-0.70349002 0.36680001 -1.6172 0
-0.70084 0.36704001 -1.6181999 0
-0.69746 0.36686 -1.6174001 0
-0.69444001 0.36688 -1.6174999 0
-0.68576998 0.36715999 -1.6188 0
-0.68312001 0.36739001 -1.6198 0
-0.67868 0.36658001 -1.6162 0
-0.67675 0.36722001 -1.619 0
-0.67303002 0.36682001 -1.6173 0
-0.63976997 0.36669999 -1.6168 0
-0.63779002 0.36733001 -1.6195 0
-0.63448 0.36712 -1.6186 0
-0.62884003 0.36733001 -1.6195 0
-0.52697998 0.36750001 -1.6202 0
-0.45660999 0.36787999 -1.6219 0
-0.28652999 0.36792001 -1.6221 0
-0.21077999 0.31898999 -1.4064 0
-0.12802 0.31182 -1.3748 0
-0.13151 0.36734 -1.6195 0
0.26008999 0.36824 -1.6235 0
0.26298001 0.36831999 -1.6239001 0
0.26609999 0.36860999 -1.6251 0
0.31136999 0.36858001 -1.625 0
0.37696999 0.36807001 -1.6228 0
0.41830999 0.36438 -1.6065 0
0.41312 0.35916001 -1.5835 0
0.78294998 0.36320999 -1.6013 0
0.81478 0.37112001 -1.6362 0
-0.77079999 0.36934999 -1.6209 0
-0.77056003 0.37083 -1.6274 0
-0.74862999 0.36930999 -1.6208 0
-0.74558002 0.36936 -1.6210001 0
-0.71556002 0.36996999 -1.6236 0
-0.70343 0.37009999 -1.6242 0
-0.69929999 0.36950999 -1.6216 0
-0.69664001 0.36974001 -1.6226 0
-0.67888999 0.37007999 -1.6241 0
-0.67515999 0.36967999 -1.6224 0
-0.67215002 0.36970001 -1.6224 0
-0.65746999 0.36996999 -1.6236 0
-0.61887997 0.37018001 -1.6246001 0
-0.61524999 0.36974999 -1.6227 0
-0.56338 0.37044001 -1.6257 0
-0.56042999 0.37041 -1.6255 0
-0.55128998 0.37009001 -1.6242 0
-0.54806 0.36984 -1.6231 0
-0.54540998 0.37000999 -1.6238 0
-0.54275 0.37018999 -1.6246001 0
-0.51716 0.37042001 -1.6256 0
-0.48558 0.37020999 -1.6247 0
-0.46840999 0.37000999 -1.6238 0
-0.44089001 0.37053999 -1.6260999 0
-0.43513 0.37037 -1.6253999 0
-0.38539001 0.37059 -1.6264 0
-0.21026 0.31907001 -1.4002 0
-0.12792 0.3123 -1.3706 0
-0.13160001 0.36984 -1.6231 0
-0.086387001 0.37081 -1.6273 0
0.16144 0.37110999 -1.6286 0
0.197 0.37081 -1.6273 0
0.20843001 0.37121999 -1.6291 0
0.2419 0.37123999 -1.6292 0
0.24766999 0.37141001 -1.6299 0
0.26459 0.37145001 -1.6301 0
0.26749 0.37153 -1.6305 0
0.26993001 0.37117001 -1.6289001 0
0.37016001 0.37108001 -1.6285 0
0.40456 0.37052 -1.6260999 0
0.40785 0.37075001 -1.6271 0
0.42276999 0.37081 -1.6273 0
0.41797999 0.36577001 -1.6052001 0
0.80874997 0.37458 -1.6439 0
0.80941999 0.37345999 -1.6390001 0
0.86734998 0.36660001 -1.6088001 0
0.88485003 0.36621001 -1.6071 0
-0.77282 0.37202999 -1.625 0
-0.76362997 0.37220001 -1.6257 0
-0.75524002 0.37277001 -1.6282001 0
-0.75098997 0.37220001 -1.6258 0
-0.74527001 0.37250999 -1.6271 0
-0.74182999 0.37235001 -1.6264 0
-0.72924 0.37231001 -1.6262 0
-0.72733998 0.37297001 -1.6291 0
-0.72276998 0.37218001 -1.6257 0
-0.72048002 0.37263 -1.6276 0
-0.71477002 0.37290999 -1.6288 0
-0.71135998 0.37274 -1.6281 0
-0.69884002 0.37265 -1.6277 0
-0.69581002 0.37266999 -1.6278 0
-0.69242001 0.37248999 -1.627 0
-0.67426997 0.37261 -1.6275001 0
-0.67159998 0.37283 -1.6285 0
-0.66824001 0.37264001 -1.6277 0
-0.65653002 0.37289 -1.6288 0
-0.65316999 0.37268999 -1.6279 0
-0.64715999 0.37270001 -1.6279 0
-0.64415002 0.37270999 -1.6279 0
-0.62948 0.37292001 -1.6289001 0
-0.59959 0.37281999 -1.6284 0
-0.59693003 0.37301001 -1.6293 0
-0.58205003 0.37290999 -1.6288 0
-0.57907999 0.37288001 -1.6287 0
-0.51288003 0.37327 -1.6303999 0
-0.50994998 0.37321001 -1.6302 0
-0.50624001 0.37250999 -1.6271 0
-0.48098001 0.37281999 -1.6284 0
-0.41113001 0.37316999 -1.63 0
-0.38668999 0.37379 -1.6327 0
-0.38363999 0.37347001 -1.6313 0
